# .PCD v0.7 - Point Cloud Data file format
VERSION 0.7
FIELDS x y z
SIZE 4 4 4
TYPE F F F
COUNT 1 1 1
WIDTH 1774
HEIGHT 1
VIEWPOINT 0 0 0 1 0 0 0
POINTS 1774
DATA ascii
0.214663 -0.132715 -0.008553
0.212925 -0.132715 -0.001092
0.210089 -0.132715 0.005908
0.206239 -0.132715 0.012236
0.214663 -0.14009 -0.016249
0.213998 -0.140265 -0.008293
0.212129 -0.140302 -0.000676
0.209272 -0.14026 0.006116
0.205634 -0.140207 0.011982
0.212925 -0.147241 -0.016249
0.21213 -0.147596 -0.008249
0.210219 -0.147521 -0.000733
0.207516 -0.147204 0.00568
0.204253 -0.146916 0.010986
0.210089 -0.153949 -0.016249
0.209253 -0.154165 -0.00832
0.207499 -0.153727 -0.001081
0.205191 -0.152946 0.004873
0.202484 -0.152294 0.009611
0.206239 -0.160014 -0.016249
0.205602 -0.159807 -0.008411
0.204231 -0.158834 -0.001414
0.202478 -0.157501 0.004186
0.200574 -0.156302 0.008363
0.176739 -0.132715 -0.071934
0.215248 -0.132715 -0.027618
0.176739 -0.175185 -0.027618
0.183426 -0.132715 -0.07126
0.18991 -0.132715 -0.069261
0.195993 -0.132715 -0.065997
0.201491 -0.132715 -0.061566
0.176739 -0.14009 -0.07126
0.183652 -0.140265 -0.070496
0.190271 -0.140302 -0.068345
0.196173 -0.14026 -0.065057
0.201271 -0.140207 -0.060871
0.176739 -0.147241 -0.069261
0.18369 -0.147596 -0.068346
0.190221 -0.147521 -0.066147
0.195794 -0.147204 -0.063036
0.200405 -0.146916 -0.059282
0.176739 -0.153949 -0.065997
0.183629 -0.154165 -0.065035
0.189919 -0.153727 -0.063017
0.195093 -0.152946 -0.060361
0.19921 -0.152294 -0.057245
0.176739 -0.160014 -0.061566
0.183549 -0.159807 -0.060833
0.18963 -0.158834 -0.059256
0.194496 -0.157501 -0.057239
0.198126 -0.156302 -0.055048
0.214663 -0.14009 -0.027618
0.212925 -0.147241 -0.027618
0.210089 -0.153949 -0.027618
0.206239 -0.160014 -0.027618
0.214663 -0.132715 -0.035314
0.213998 -0.140339 -0.035497
0.212129 -0.14764 -0.035535
0.209272 -0.154148 -0.035491
0.205634 -0.15977 -0.035436
0.212925 -0.132715 -0.042775
0.21213 -0.140382 -0.043146
0.210219 -0.147584 -0.043068
0.207516 -0.15373 -0.042737
0.204253 -0.158815 -0.042436
0.210089 -0.132715 -0.049776
0.209253 -0.140314 -0.050001
0.207499 -0.147251 -0.049544
0.205191 -0.152957 -0.048729
0.202484 -0.157497 -0.048049
0.206239 -0.132715 -0.056103
0.205602 -0.140226 -0.055888
0.204231 -0.146932 -0.054873
0.202478 -0.152299 -0.053481
0.200574 -0.156302 -0.05223
0.176739 -0.174539 -0.035314
0.176739 -0.172624 -0.042775
0.176739 -0.169495 -0.049776
0.176739 -0.165249 -0.056103
0.183426 -0.174539 -0.027618
0.183585 -0.173807 -0.035574
0.183618 -0.171745 -0.043192
0.18358 -0.168595 -0.049983
0.183532 -0.164583 -0.055849
0.18991 -0.172624 -0.027618
0.190232 -0.171746 -0.035618
0.190164 -0.169639 -0.043134
0.189876 -0.166658 -0.049547
0.189615 -0.16306 -0.054853
0.195993 -0.169495 -0.027618
0.196189 -0.168573 -0.035548
0.195791 -0.166639 -0.042786
0.195083 -0.164094 -0.04874
0.194492 -0.161108 -0.053478
0.201491 -0.165249 -0.027618
0.201304 -0.164547 -0.035456
0.200422 -0.163035 -0.042453
0.199213 -0.161102 -0.048053
0.198126 -0.159002 -0.05223
-0.223652 0.162573 0.187264
-0.223652 0.174815 0.176311
-0.234752 0.162573 0.176311
-0.223652 0.164699 0.187097
-0.223652 0.16676 0.186603
-0.223652 0.168694 0.185797
-0.223652 0.170442 0.184702
-0.225579 0.162573 0.187097
-0.225625 0.164771 0.186909
-0.225635 0.166875 0.186377
-0.225624 0.168751 0.185564
-0.22561 0.170372 0.18453
-0.227448 0.162573 0.186603
-0.227541 0.164783 0.186377
-0.227522 0.166859 0.185834
-0.227439 0.168631 0.185065
-0.227363 0.170096 0.184137
-0.229202 0.162573 0.185797
-0.229258 0.164763 0.185559
-0.229144 0.166763 0.18506
-0.22894 0.168408 0.184404
-0.228769 0.169717 0.183634
-0.230787 0.162573 0.184702
-0.230733 0.164738 0.184521
-0.230479 0.166671 0.184131
-0.23013 0.168218 0.183632
-0.229817 0.169372 0.183091
-0.225579 0.174629 0.176311
-0.227448 0.174077 0.176311
-0.229202 0.173175 0.176311
-0.230787 0.171951 0.176311
-0.223652 0.174629 0.178214
-0.225644 0.174418 0.178259
-0.227553 0.173824 0.178268
-0.229254 0.172916 0.178257
-0.230723 0.171759 0.178244
-0.223652 0.174077 0.180057
-0.225655 0.173824 0.180149
-0.227538 0.173216 0.18013
-0.229144 0.172357 0.180048
-0.230474 0.17132 0.179974
-0.223652 0.173175 0.181788
-0.225638 0.172909 0.181843
-0.227451 0.172352 0.18173
-0.228942 0.171618 0.181529
-0.230129 0.170757 0.181361
-0.223652 0.171951 0.183351
-0.225615 0.171749 0.183298
-0.227368 0.171313 0.183047
-0.22877 0.170756 0.182703
-0.229817 0.17015 0.182394
-0.234584 0.162573 0.178214
-0.234083 0.162573 0.180057
-0.233265 0.162573 0.181788
-0.232155 0.162573 0.183351
-0.234584 0.164699 0.176311
-0.234392 0.164749 0.178278
-0.233853 0.16476 0.18016
-0.23303 0.164748 0.181839
-0.231981 0.164732 0.183289
-0.234083 0.16676 0.176311
-0.233854 0.166862 0.178289
-0.233303 0.166841 0.180146
-0.232524 0.166749 0.181731
-0.231583 0.166666 0.183042
-0.233265 0.168694 0.176311
-0.233024 0.168756 0.178271
-0.232519 0.16863 0.18006
-0.231853 0.168405 0.181532
-0.231073 0.168217 0.182703
-0.232155 0.170442 0.176311
-0.231972 0.170382 0.178248
-0.231577 0.170102 0.179978
-0.231071 0.169717 0.181362
-0.230522 0.169372 0.182394
-0.223652 0.174815 0.173216
-0.223652 0.162573 0.162264
-0.234752 0.162573 0.173216
-0.223652 0.174629 0.171314
-0.223652 0.174077 0.16947
-0.223652 0.173175 0.16774
-0.223652 0.171951 0.166176
-0.225579 0.174629 0.173216
-0.225625 0.174418 0.17125
-0.225635 0.173824 0.169367
-0.225624 0.172916 0.167689
-0.22561 0.171759 0.166239
-0.227448 0.174077 0.173216
-0.227541 0.173824 0.171239
-0.227522 0.173216 0.169382
-0.227439 0.172357 0.167797
-0.227363 0.17132 0.166485
-0.229202 0.173175 0.173216
-0.229258 0.172909 0.171257
-0.229144 0.172352 0.169468
-0.22894 0.171618 0.167996
-0.228769 0.170757 0.166825
-0.230787 0.171951 0.173216
-0.230733 0.171749 0.171279
-0.230479 0.171313 0.16955
-0.23013 0.170756 0.168166
-0.229817 0.17015 0.167134
-0.225579 0.162573 0.16243
-0.227448 0.162573 0.162924
-0.229202 0.162573 0.163731
-0.230787 0.162573 0.164826
-0.223652 0.164699 0.16243
-0.225644 0.164749 0.162619
-0.227553 0.16476 0.163151
-0.229254 0.164748 0.163963
-0.230723 0.164732 0.164998
-0.223652 0.16676 0.162924
-0.225655 0.166862 0.163151
-0.227538 0.166841 0.163694
-0.229144 0.166749 0.164463
-0.230474 0.166666 0.165391
-0.223652 0.168694 0.163731
-0.225638 0.168756 0.163969
-0.227451 0.16863 0.164468
-0.228942 0.168405 0.165124
-0.230129 0.168217 0.165894
-0.223652 0.170442 0.164826
-0.225615 0.170382 0.165007
-0.227368 0.170102 0.165397
-0.22877 0.169717 0.165896
-0.229817 0.169372 0.166437
-0.234584 0.164699 0.173216
-0.234083 0.16676 0.173216
-0.233265 0.168694 0.173216
-0.232155 0.170442 0.173216
-0.234584 0.162573 0.171314
-0.234392 0.164771 0.171269
-0.233853 0.166875 0.17126
-0.23303 0.168751 0.171271
-0.231981 0.170372 0.171284
-0.234083 0.162573 0.16947
-0.233854 0.164783 0.169379
-0.233303 0.166859 0.169398
-0.232524 0.168631 0.16948
-0.231583 0.170096 0.169554
-0.233265 0.162573 0.16774
-0.233024 0.164763 0.167685
-0.232519 0.166763 0.167797
-0.231853 0.168408 0.167999
-0.231073 0.169717 0.168167
-0.232155 0.162573 0.166176
-0.231972 0.164738 0.16623
-0.231577 0.166671 0.16648
-0.231071 0.168218 0.166824
-0.230522 0.169372 0.167134
-0.223652 -0.162942 0.187264
-0.234752 -0.162942 0.176311
-0.223652 -0.175185 0.176311
-0.225579 -0.162942 0.187097
-0.227448 -0.162942 0.186603
-0.229202 -0.162942 0.185797
-0.230787 -0.162942 0.184702
-0.223652 -0.165068 0.187097
-0.225644 -0.165119 0.186909
-0.227553 -0.165129 0.186377
-0.229254 -0.165117 0.185564
-0.230723 -0.165102 0.18453
-0.223652 -0.16713 0.186603
-0.225655 -0.167232 0.186377
-0.227538 -0.16721 0.185834
-0.229144 -0.167119 0.185065
-0.230474 -0.167036 0.184137
-0.223652 -0.169063 0.185797
-0.225638 -0.169126 0.185559
-0.227451 -0.168999 0.18506
-0.228942 -0.168774 0.184404
-0.230129 -0.168586 0.183634
-0.223652 -0.170812 0.184702
-0.225615 -0.170752 0.184521
-0.227368 -0.170472 0.184131
-0.22877 -0.170087 0.183632
-0.229817 -0.169742 0.183091
-0.234584 -0.165068 0.176311
-0.234083 -0.16713 0.176311
-0.233265 -0.169063 0.176311
-0.232155 -0.170812 0.176311
-0.234584 -0.162942 0.178214
-0.234392 -0.16514 0.178259
-0.233853 -0.167245 0.178268
-0.23303 -0.169121 0.178257
-0.231981 -0.170741 0.178244
-0.234083 -0.162942 0.180057
-0.233854 -0.165152 0.180149
-0.233303 -0.167229 0.18013
-0.232524 -0.169 0.180048
-0.231583 -0.170466 0.179974
-0.233265 -0.162942 0.181788
-0.233024 -0.165133 0.181843
-0.232519 -0.167133 0.18173
-0.231853 -0.168777 0.181529
-0.231073 -0.170086 0.181361
-0.232155 -0.162942 0.183351
-0.231972 -0.165108 0.183298
-0.231577 -0.167041 0.183047
-0.231071 -0.168588 0.182703
-0.230522 -0.169742 0.182394
-0.223652 -0.174999 0.178214
-0.223652 -0.174446 0.180057
-0.223652 -0.173545 0.181788
-0.223652 -0.172321 0.183351
-0.225579 -0.174999 0.176311
-0.225625 -0.174788 0.178278
-0.225635 -0.174193 0.18016
-0.225624 -0.173285 0.181839
-0.22561 -0.172129 0.183289
-0.227448 -0.174446 0.176311
-0.227541 -0.174194 0.178289
-0.227522 -0.173586 0.180146
-0.227439 -0.172727 0.181731
-0.227363 -0.17169 0.183042
-0.229202 -0.173545 0.176311
-0.229258 -0.173279 0.178271
-0.229144 -0.172722 0.18006
-0.22894 -0.171988 0.181532
-0.228769 -0.171127 0.182703
-0.230787 -0.172321 0.176311
-0.230733 -0.172118 0.178248
-0.230479 -0.171683 0.179978
-0.23013 -0.171125 0.181362
-0.229817 -0.17052 0.182394
-0.223652 -0.162942 0.162264
-0.223652 -0.175185 0.173216
-0.234752 -0.162942 0.173216
-0.223652 -0.165068 0.16243
-0.223652 -0.16713 0.162924
-0.223652 -0.169063 0.163731
-0.223652 -0.170812 0.164826
-0.225579 -0.162942 0.16243
-0.225625 -0.16514 0.162619
-0.225635 -0.167245 0.163151
-0.225624 -0.169121 0.163963
-0.22561 -0.170741 0.164998
-0.227448 -0.162942 0.162924
-0.227541 -0.165152 0.163151
-0.227522 -0.167229 0.163694
-0.227439 -0.169 0.164463
-0.227363 -0.170466 0.165391
-0.229202 -0.162942 0.163731
-0.229258 -0.165133 0.163969
-0.229144 -0.167133 0.164468
-0.22894 -0.168777 0.165124
-0.228769 -0.170086 0.165894
-0.230787 -0.162942 0.164826
-0.230733 -0.165108 0.165007
-0.230479 -0.167041 0.165397
-0.23013 -0.168588 0.165896
-0.229817 -0.169742 0.166437
-0.225579 -0.174999 0.173216
-0.227448 -0.174446 0.173216
-0.229202 -0.173545 0.173216
-0.230787 -0.172321 0.173216
-0.223652 -0.174999 0.171314
-0.225644 -0.174788 0.171269
-0.227553 -0.174193 0.17126
-0.229254 -0.173285 0.171271
-0.230723 -0.172129 0.171284
-0.223652 -0.174446 0.16947
-0.225655 -0.174194 0.169379
-0.227538 -0.173586 0.169398
-0.229144 -0.172727 0.16948
-0.230474 -0.17169 0.169554
-0.223652 -0.173545 0.16774
-0.225638 -0.173279 0.167685
-0.227451 -0.172722 0.167797
-0.228942 -0.171988 0.167999
-0.230129 -0.171127 0.168167
-0.223652 -0.172321 0.166176
-0.225615 -0.172118 0.16623
-0.227368 -0.171683 0.16648
-0.22877 -0.171125 0.166824
-0.229817 -0.17052 0.167134
-0.234584 -0.162942 0.171314
-0.234083 -0.162942 0.16947
-0.233265 -0.162942 0.16774
-0.232155 -0.162942 0.166176
-0.234584 -0.165068 0.173216
-0.234392 -0.165119 0.17125
-0.233853 -0.165129 0.169367
-0.23303 -0.165117 0.167689
-0.231981 -0.165102 0.166239
-0.234083 -0.16713 0.173216
-0.233854 -0.167232 0.171239
-0.233303 -0.16721 0.169382
-0.232524 -0.167119 0.167797
-0.231583 -0.167036 0.166485
-0.233265 -0.169063 0.173216
-0.233024 -0.169126 0.171257
-0.232519 -0.168999 0.169468
-0.231853 -0.168774 0.167996
-0.231073 -0.168586 0.166825
-0.232155 -0.170812 0.173216
-0.231972 -0.170752 0.171279
-0.231577 -0.170472 0.16955
-0.231071 -0.170087 0.168166
-0.230522 -0.169742 0.167134
0.204147 0.162573 0.187264
0.215248 0.162573 0.176311
0.204147 0.174815 0.176311
0.206075 0.162573 0.187097
0.207944 0.162573 0.186603
0.209697 0.162573 0.185797
0.211282 0.162573 0.184702
0.204147 0.164699 0.187097
0.20614 0.164749 0.186909
0.208048 0.16476 0.186377
0.209749 0.164748 0.185564
0.211219 0.164732 0.18453
0.204147 0.16676 0.186603
0.206151 0.166862 0.186377
0.208033 0.166841 0.185834
0.20964 0.166749 0.185065
0.210969 0.166666 0.184137
0.204147 0.168694 0.185797
0.206133 0.168756 0.185559
0.207946 0.16863 0.18506
0.209438 0.168405 0.184404
0.210625 0.168217 0.183634
0.204147 0.170442 0.184702
0.20611 0.170382 0.184521
0.207863 0.170102 0.184131
0.209266 0.169718 0.183632
0.210312 0.169372 0.183091
0.215079 0.164699 0.176311
0.214578 0.16676 0.176311
0.213761 0.168694 0.176311
0.212651 0.170442 0.176311
0.215079 0.162573 0.178214
0.214888 0.164771 0.178259
0.214349 0.166875 0.178268
0.213525 0.168751 0.178257
0.212477 0.170372 0.178244
0.214578 0.162573 0.180057
0.214349 0.164783 0.180149
0.213798 0.166859 0.18013
0.213019 0.168631 0.180048
0.212078 0.170097 0.179974
0.213761 0.162573 0.181788
0.21352 0.164763 0.181843
0.213014 0.166763 0.18173
0.212349 0.168408 0.181529
0.211568 0.169717 0.181361
0.212651 0.162573 0.183351
0.212467 0.164738 0.183298
0.212072 0.166671 0.183047
0.211567 0.168218 0.182703
0.211018 0.169372 0.182394
0.204147 0.174629 0.178214
0.204147 0.174077 0.180057
0.204147 0.173175 0.181788
0.204147 0.171951 0.183351
0.206075 0.174629 0.176311
0.20612 0.174418 0.178278
0.20613 0.173824 0.18016
0.206119 0.172916 0.181839
0.206105 0.171759 0.183289
0.207944 0.174077 0.176311
0.208037 0.173824 0.178289
0.208017 0.173216 0.180146
0.207934 0.172357 0.181731
0.207859 0.17132 0.183042
0.209697 0.173175 0.176311
0.209754 0.172909 0.178271
0.209639 0.172352 0.18006
0.209435 0.171618 0.181532
0.209265 0.170757 0.182703
0.211282 0.171951 0.176311
0.211228 0.171749 0.178248
0.210974 0.171313 0.179978
0.210625 0.170756 0.181362
0.210312 0.17015 0.182394
0.204147 0.162573 0.162264
0.204147 0.174815 0.173216
0.215248 0.162573 0.173216
0.204147 0.164699 0.16243
0.204147 0.16676 0.162924
0.204147 0.168694 0.163731
0.204147 0.170442 0.164826
0.206075 0.162573 0.16243
0.20612 0.164771 0.162619
0.20613 0.166875 0.163151
0.206119 0.168751 0.163963
0.206105 0.170372 0.164998
0.207944 0.162573 0.162924
0.208037 0.164783 0.163151
0.208017 0.166859 0.163694
0.207934 0.168631 0.164463
0.207859 0.170096 0.165391
0.209697 0.162573 0.163731
0.209754 0.164763 0.163969
0.209639 0.166763 0.164468
0.209435 0.168408 0.165124
0.209265 0.169717 0.165894
0.211282 0.162573 0.164826
0.211228 0.164738 0.165007
0.210974 0.166671 0.165397
0.210625 0.168218 0.165896
0.210312 0.169372 0.166437
0.206075 0.174629 0.173216
0.207944 0.174077 0.173216
0.209697 0.173175 0.173216
0.211282 0.171951 0.173216
0.204147 0.174629 0.171314
0.20614 0.174418 0.171269
0.208048 0.173824 0.17126
0.209749 0.172916 0.171271
0.211219 0.171759 0.171284
0.204147 0.174077 0.16947
0.206151 0.173824 0.169379
0.208033 0.173216 0.169398
0.20964 0.172357 0.16948
0.210969 0.17132 0.169554
0.204147 0.173175 0.16774
0.206133 0.172909 0.167685
0.207946 0.172352 0.167797
0.209438 0.171618 0.167999
0.210625 0.170757 0.168167
0.204147 0.171951 0.166176
0.20611 0.171749 0.16623
0.207863 0.171313 0.16648
0.209266 0.170756 0.166824
0.210312 0.17015 0.167134
0.215079 0.162573 0.171314
0.214578 0.162573 0.16947
0.213761 0.162573 0.16774
0.212651 0.162573 0.166176
0.215079 0.164699 0.173216
0.214888 0.164749 0.17125
0.214349 0.16476 0.169367
0.213525 0.164748 0.167689
0.212477 0.164732 0.166239
0.214578 0.16676 0.173216
0.214349 0.166862 0.171239
0.213798 0.166841 0.169382
0.213019 0.166749 0.167797
0.212078 0.166666 0.166485
0.213761 0.168694 0.173216
0.21352 0.168756 0.171257
0.213014 0.16863 0.169468
0.212349 0.168405 0.167996
0.211568 0.168217 0.166825
0.212651 0.170442 0.173216
0.212467 0.170382 0.171279
0.212072 0.170102 0.16955
0.211567 0.169717 0.168166
0.211018 0.169372 0.167134
0.204147 -0.162942 0.187264
0.204147 -0.175185 0.176311
0.215248 -0.162942 0.176311
0.204147 -0.165068 0.187097
0.204147 -0.16713 0.186603
0.204147 -0.169063 0.185797
0.204147 -0.170812 0.184702
0.206075 -0.162942 0.187097
0.20612 -0.16514 0.186909
0.20613 -0.167245 0.186377
0.206119 -0.169121 0.185564
0.206105 -0.170741 0.18453
0.207944 -0.162942 0.186603
0.208037 -0.165152 0.186377
0.208017 -0.167229 0.185834
0.207934 -0.169 0.185065
0.207859 -0.170466 0.184137
0.209697 -0.162942 0.185797
0.209754 -0.165133 0.185559
0.209639 -0.167133 0.18506
0.209435 -0.168777 0.184404
0.209265 -0.170086 0.183634
0.211282 -0.162942 0.184702
0.211228 -0.165108 0.184521
0.210974 -0.167041 0.184131
0.210625 -0.168588 0.183632
0.210312 -0.169742 0.183091
0.206075 -0.174999 0.176311
0.207944 -0.174446 0.176311
0.209697 -0.173545 0.176311
0.211282 -0.172321 0.176311
0.204147 -0.174999 0.178214
0.20614 -0.174788 0.178259
0.208048 -0.174193 0.178268
0.209749 -0.173285 0.178257
0.211219 -0.172129 0.178244
0.204147 -0.174446 0.180057
0.206151 -0.174194 0.180149
0.208033 -0.173586 0.18013
0.20964 -0.172727 0.180048
0.210969 -0.17169 0.179974
0.204147 -0.173545 0.181788
0.206133 -0.173279 0.181843
0.207946 -0.172722 0.18173
0.209438 -0.171988 0.181529
0.210625 -0.171127 0.181361
0.204147 -0.172321 0.183351
0.20611 -0.172118 0.183298
0.207863 -0.171683 0.183047
0.209266 -0.171125 0.182703
0.210312 -0.17052 0.182394
0.215079 -0.162942 0.178214
0.214578 -0.162942 0.180057
0.213761 -0.162942 0.181788
0.212651 -0.162942 0.183351
0.215079 -0.165068 0.176311
0.214888 -0.165119 0.178278
0.214349 -0.165129 0.18016
0.213525 -0.165117 0.181839
0.212477 -0.165102 0.183289
0.214578 -0.16713 0.176311
0.214349 -0.167232 0.178289
0.213798 -0.16721 0.180146
0.213019 -0.167119 0.181731
0.212078 -0.167036 0.183042
0.213761 -0.169063 0.176311
0.21352 -0.169126 0.178271
0.213014 -0.168999 0.18006
0.212349 -0.168774 0.181532
0.211568 -0.168586 0.182703
0.212651 -0.170812 0.176311
0.212467 -0.170752 0.178248
0.212072 -0.170472 0.179978
0.211567 -0.170087 0.181362
0.211018 -0.169742 0.182394
0.204147 -0.162942 0.162264
0.215248 -0.162942 0.173216
0.204147 -0.175185 0.173216
0.206075 -0.162942 0.16243
0.207944 -0.162942 0.162924
0.209697 -0.162942 0.163731
0.211282 -0.162942 0.164826
0.204147 -0.165068 0.16243
0.20614 -0.165119 0.162619
0.208048 -0.165129 0.163151
0.209749 -0.165117 0.163963
0.211219 -0.165102 0.164998
0.204147 -0.16713 0.162924
0.206151 -0.167232 0.163151
0.208033 -0.16721 0.163694
0.20964 -0.167119 0.164463
0.210969 -0.167036 0.165391
0.204147 -0.169063 0.163731
0.206133 -0.169126 0.163969
0.207946 -0.168999 0.164468
0.209438 -0.168774 0.165124
0.210625 -0.168586 0.165894
0.204147 -0.170812 0.164826
0.20611 -0.170752 0.165007
0.207863 -0.170472 0.165397
0.209266 -0.170087 0.165896
0.210312 -0.169742 0.166437
0.215079 -0.165068 0.173216
0.214578 -0.16713 0.173216
0.213761 -0.169063 0.173216
0.212651 -0.170812 0.173216
0.215079 -0.162942 0.171314
0.214888 -0.16514 0.171269
0.214349 -0.167245 0.17126
0.213525 -0.169121 0.171271
0.212477 -0.170741 0.171284
0.214578 -0.162942 0.16947
0.214349 -0.165152 0.169379
0.213798 -0.167229 0.169398
0.213019 -0.169 0.16948
0.212078 -0.170466 0.169554
0.213761 -0.162942 0.16774
0.21352 -0.165133 0.167685
0.213014 -0.167133 0.167797
0.212349 -0.168777 0.167999
0.211568 -0.170086 0.168167
0.212651 -0.162942 0.166176
0.212467 -0.165108 0.16623
0.212072 -0.167041 0.16648
0.211567 -0.168588 0.166824
0.211018 -0.169742 0.167134
0.204147 -0.174999 0.171314
0.204147 -0.174446 0.16947
0.204147 -0.173545 0.16774
0.204147 -0.172321 0.166176
0.206075 -0.174999 0.173216
0.20612 -0.174788 0.17125
0.20613 -0.174193 0.169367
0.206119 -0.173285 0.167689
0.206105 -0.172129 0.166239
0.207944 -0.174446 0.173216
0.208037 -0.174194 0.171239
0.208017 -0.173586 0.169382
0.207934 -0.172727 0.167797
0.207859 -0.17169 0.166485
0.209697 -0.173545 0.173216
0.209754 -0.173279 0.171257
0.209639 -0.172722 0.169468
0.209435 -0.171988 0.167996
0.209265 -0.171127 0.166825
0.211282 -0.172321 0.173216
0.211228 -0.172118 0.171279
0.210974 -0.171683 0.16955
0.210625 -0.171125 0.168166
0.210312 -0.17052 0.167134
-0.18 0.115 0.17
-0.18 0.115 0.01
-0.175123 0.11548 0.17
-0.175123 0.11548 0.01
-0.170433 0.116903 0.17
-0.170433 0.116903 0.01
-0.166111 0.119213 0.17
-0.166111 0.119213 0.01
-0.162322 0.122322 0.17
-0.162322 0.122322 0.01
-0.159213 0.126111 0.17
-0.159213 0.126111 0.01
-0.156903 0.130433 0.17
-0.156903 0.130433 0.01
-0.15548 0.135123 0.17
-0.15548 0.135123 0.01
-0.155 0.14 0.17
-0.155 0.14 0.01
-0.15548 0.144877 0.17
-0.15548 0.144877 0.01
-0.156903 0.149567 0.17
-0.156903 0.149567 0.01
-0.159213 0.153889 0.17
-0.159213 0.153889 0.01
-0.162322 0.157678 0.17
-0.162322 0.157678 0.01
-0.166111 0.160787 0.17
-0.166111 0.160787 0.01
-0.170433 0.163097 0.17
-0.170433 0.163097 0.01
-0.175123 0.16452 0.17
-0.175123 0.16452 0.01
-0.18 0.165 0.17
-0.18 0.165 0.01
-0.184877 0.16452 0.17
-0.184877 0.16452 0.01
-0.189567 0.163097 0.17
-0.189567 0.163097 0.01
-0.193889 0.160787 0.17
-0.193889 0.160787 0.01
-0.197678 0.157678 0.17
-0.197678 0.157678 0.01
-0.200787 0.153889 0.17
-0.200787 0.153889 0.01
-0.203097 0.149567 0.17
-0.203097 0.149567 0.01
-0.20452 0.144877 0.17
-0.20452 0.144877 0.01
-0.205 0.14 0.17
-0.205 0.14 0.01
-0.20452 0.135123 0.17
-0.20452 0.135123 0.01
-0.203097 0.130433 0.17
-0.203097 0.130433 0.01
-0.200787 0.126111 0.17
-0.200787 0.126111 0.01
-0.197678 0.122322 0.17
-0.197678 0.122322 0.01
-0.193889 0.119213 0.17
-0.193889 0.119213 0.01
-0.189567 0.116903 0.17
-0.189567 0.116903 0.01
-0.184877 0.11548 0.17
-0.184877 0.11548 0.01
0.18 0.115 0.17
0.18 0.115 0.01
0.184877 0.11548 0.17
0.184877 0.11548 0.01
0.189567 0.116903 0.17
0.189567 0.116903 0.01
0.193889 0.119213 0.17
0.193889 0.119213 0.01
0.197678 0.122322 0.17
0.197678 0.122322 0.01
0.200787 0.126111 0.17
0.200787 0.126111 0.01
0.203097 0.130433 0.17
0.203097 0.130433 0.01
0.20452 0.135123 0.17
0.20452 0.135123 0.01
0.205 0.14 0.17
0.205 0.14 0.01
0.20452 0.144877 0.17
0.20452 0.144877 0.01
0.203097 0.149567 0.17
0.203097 0.149567 0.01
0.200787 0.153889 0.17
0.200787 0.153889 0.01
0.197678 0.157678 0.17
0.197678 0.157678 0.01
0.193889 0.160787 0.17
0.193889 0.160787 0.01
0.189567 0.163097 0.17
0.189567 0.163097 0.01
0.184877 0.16452 0.17
0.184877 0.16452 0.01
0.18 0.165 0.17
0.18 0.165 0.01
0.175123 0.16452 0.17
0.175123 0.16452 0.01
0.170433 0.163097 0.17
0.170433 0.163097 0.01
0.166111 0.160787 0.17
0.166111 0.160787 0.01
0.162322 0.157678 0.17
0.162322 0.157678 0.01
0.159213 0.153889 0.17
0.159213 0.153889 0.01
0.156903 0.149567 0.17
0.156903 0.149567 0.01
0.15548 0.144877 0.17
0.15548 0.144877 0.01
0.155 0.14 0.17
0.155 0.14 0.01
0.15548 0.135123 0.17
0.15548 0.135123 0.01
0.156903 0.130433 0.17
0.156903 0.130433 0.01
0.159213 0.126111 0.17
0.159213 0.126111 0.01
0.162322 0.122322 0.17
0.162322 0.122322 0.01
0.166111 0.119213 0.17
0.166111 0.119213 0.01
0.170433 0.116903 0.17
0.170433 0.116903 0.01
0.175123 0.11548 0.17
0.175123 0.11548 0.01
-0.18 -0.165 0.17
-0.18 -0.165 0.01
-0.175123 -0.16452 0.17
-0.175123 -0.16452 0.01
-0.170433 -0.163097 0.17
-0.170433 -0.163097 0.01
-0.166111 -0.160787 0.17
-0.166111 -0.160787 0.01
-0.162322 -0.157678 0.17
-0.162322 -0.157678 0.01
-0.159213 -0.153889 0.17
-0.159213 -0.153889 0.01
-0.156903 -0.149567 0.17
-0.156903 -0.149567 0.01
-0.15548 -0.144877 0.17
-0.15548 -0.144877 0.01
-0.155 -0.14 0.17
-0.155 -0.14 0.01
-0.15548 -0.135123 0.17
-0.15548 -0.135123 0.01
-0.156903 -0.130433 0.17
-0.156903 -0.130433 0.01
-0.159213 -0.126111 0.17
-0.159213 -0.126111 0.01
-0.162322 -0.122322 0.17
-0.162322 -0.122322 0.01
-0.166111 -0.119213 0.17
-0.166111 -0.119213 0.01
-0.170433 -0.116903 0.17
-0.170433 -0.116903 0.01
-0.175123 -0.11548 0.17
-0.175123 -0.11548 0.01
-0.18 -0.115 0.17
-0.18 -0.115 0.01
-0.184877 -0.11548 0.17
-0.184877 -0.11548 0.01
-0.189567 -0.116903 0.17
-0.189567 -0.116903 0.01
-0.193889 -0.119213 0.17
-0.193889 -0.119213 0.01
-0.197678 -0.122322 0.17
-0.197678 -0.122322 0.01
-0.200787 -0.126111 0.17
-0.200787 -0.126111 0.01
-0.203097 -0.130433 0.17
-0.203097 -0.130433 0.01
-0.20452 -0.135123 0.17
-0.20452 -0.135123 0.01
-0.205 -0.14 0.17
-0.205 -0.14 0.01
-0.20452 -0.144877 0.17
-0.20452 -0.144877 0.01
-0.203097 -0.149567 0.17
-0.203097 -0.149567 0.01
-0.200787 -0.153889 0.17
-0.200787 -0.153889 0.01
-0.197678 -0.157678 0.17
-0.197678 -0.157678 0.01
-0.193889 -0.160787 0.17
-0.193889 -0.160787 0.01
-0.189567 -0.163097 0.17
-0.189567 -0.163097 0.01
-0.184877 -0.16452 0.17
-0.184877 -0.16452 0.01
0.18 -0.165 0.17
0.18 -0.165 0.01
0.184877 -0.16452 0.17
0.184877 -0.16452 0.01
0.189567 -0.163097 0.17
0.189567 -0.163097 0.01
0.193889 -0.160787 0.17
0.193889 -0.160787 0.01
0.197678 -0.157678 0.17
0.197678 -0.157678 0.01
0.200787 -0.153889 0.17
0.200787 -0.153889 0.01
0.203097 -0.149567 0.17
0.203097 -0.149567 0.01
0.20452 -0.144877 0.17
0.20452 -0.144877 0.01
0.205 -0.14 0.17
0.205 -0.14 0.01
0.20452 -0.135123 0.17
0.20452 -0.135123 0.01
0.203097 -0.130433 0.17
0.203097 -0.130433 0.01
0.200787 -0.126111 0.17
0.200787 -0.126111 0.01
0.197678 -0.122322 0.17
0.197678 -0.122322 0.01
0.193889 -0.119213 0.17
0.193889 -0.119213 0.01
0.189567 -0.116903 0.17
0.189567 -0.116903 0.01
0.184877 -0.11548 0.17
0.184877 -0.11548 0.01
0.18 -0.115 0.17
0.18 -0.115 0.01
0.175123 -0.11548 0.17
0.175123 -0.11548 0.01
0.170433 -0.116903 0.17
0.170433 -0.116903 0.01
0.166111 -0.119213 0.17
0.166111 -0.119213 0.01
0.162322 -0.122322 0.17
0.162322 -0.122322 0.01
0.159213 -0.126111 0.17
0.159213 -0.126111 0.01
0.156903 -0.130433 0.17
0.156903 -0.130433 0.01
0.15548 -0.135123 0.17
0.15548 -0.135123 0.01
0.155 -0.14 0.17
0.155 -0.14 0.01
0.15548 -0.144877 0.17
0.15548 -0.144877 0.01
0.156903 -0.149567 0.17
0.156903 -0.149567 0.01
0.159213 -0.153889 0.17
0.159213 -0.153889 0.01
0.162322 -0.157678 0.17
0.162322 -0.157678 0.01
0.166111 -0.160787 0.17
0.166111 -0.160787 0.01
0.170433 -0.163097 0.17
0.170433 -0.163097 0.01
0.175123 -0.16452 0.17
0.175123 -0.16452 0.01
-0.203054 0.164177 0.012021
-0.214001 0.160732 0.009614
-0.209134 0.162666 0.011006
-0.220809 0.139856 0.016966
-0.219927 0.146562 0.015389
-0.225106 0.159438 -0.008411
-0.221983 0.157131 0.004186
-0.223736 0.158465 -0.001414
-0.218717 0.151929 0.013372
-0.21763 0.158632 0.008363
-0.220079 0.155932 0.008363
-0.203054 0.159438 -0.060833
-0.214001 0.157131 -0.057239
-0.209134 0.158465 -0.059256
-0.220809 0.164177 -0.035456
-0.219927 0.162666 -0.042453
-0.225106 0.139856 -0.055888
-0.221983 0.151929 -0.053481
-0.223736 0.146562 -0.054873
-0.218717 0.160732 -0.048053
-0.21763 0.155932 -0.055048
-0.220079 0.155932 -0.05223
-0.225106 -0.140226 0.012021
-0.221983 -0.152299 0.009614
-0.223736 -0.146932 0.011006
-0.203054 -0.159807 0.016966
-0.209134 -0.158834 0.015389
-0.214001 -0.157501 0.013372
-0.220079 -0.156302 0.008363
-0.21763 -0.159002 0.008363
-0.203054 -0.164547 -0.055888
-0.214001 -0.161102 -0.053481
-0.209134 -0.163035 -0.054873
-0.220809 -0.140226 -0.060833
-0.219927 -0.146932 -0.059256
-0.218717 -0.152299 -0.057239
-0.21763 -0.159002 -0.05223
-0.220079 -0.156302 -0.05223
0.183549 0.159438 0.016966
0.18963 0.158465 0.015389
0.194496 0.157131 0.013372
0.200574 0.155932 0.008363
0.198126 0.158632 0.008363
0.183549 0.164177 -0.055888
0.194496 0.160732 -0.053481
0.18963 0.162666 -0.054873
0.198126 0.158632 -0.05223
0.200574 0.155932 -0.05223
0.183549 -0.164547 0.012021
0.194496 -0.161102 0.009614
0.18963 -0.163035 0.011006
0.198126 -0.159002 0.008363
0.200574 -0.156302 0.008363
0.183549 -0.159807 -0.060833
0.18963 -0.158834 -0.059256
0.194496 -0.157501 -0.057239
0.200574 -0.156302 -0.05223
0.198126 -0.159002 -0.05223
-0.225743 -0.132715 0.012236
-0.225743 0.159644 -0.016249
-0.225743 0.132345 -0.056103
0.176739 -0.165249 0.012236
-0.196243 -0.165249 -0.056103
-0.196243 0.164879 0.012236
0.176739 0.164879 -0.056103
-0.225615 0.171749 0.183298
-0.227368 0.171313 0.183047
-0.229817 0.17015 0.182394
-0.22877 0.170756 0.182703
-0.230787 0.162573 0.184702
-0.230733 0.164738 0.184521
-0.230479 0.166671 0.184131
-0.231972 0.170382 0.178248
-0.231577 0.170102 0.179978
-0.231071 0.169717 0.181362
-0.23013 0.168218 0.183632
-0.230522 0.169372 0.182394
-0.223652 0.170442 0.164826
-0.227368 0.170102 0.165397
-0.225615 0.170382 0.165007
-0.22877 0.169717 0.165896
-0.230733 0.171749 0.171279
-0.230479 0.171313 0.16955
-0.231972 0.164738 0.16623
-0.231577 0.166671 0.16648
-0.230522 0.169372 0.167134
-0.231071 0.168218 0.166824
-0.23013 0.170756 0.168166
-0.229817 0.169372 0.166437
-0.230522 0.169372 0.167134
-0.231972 -0.165108 0.183298
-0.231577 -0.167041 0.183047
-0.230522 -0.169742 0.182394
-0.231071 -0.168588 0.182703
-0.223652 -0.170812 0.184702
-0.225615 -0.170752 0.184521
-0.227368 -0.170472 0.184131
-0.22877 -0.170087 0.183632
-0.229817 -0.17052 0.182394
-0.225615 -0.172118 0.16623
-0.227368 -0.171683 0.16648
-0.229817 -0.17052 0.167134
-0.22877 -0.171125 0.166824
-0.230787 -0.162942 0.164826
-0.230733 -0.165108 0.165007
-0.230479 -0.167041 0.165397
-0.23013 -0.168588 0.165896
-0.230522 -0.169742 0.167134
0.204147 0.170442 0.184702
0.20611 0.170382 0.184521
0.207863 0.170102 0.184131
0.209266 0.169718 0.183632
0.211018 0.169372 0.182394
0.210312 0.17015 0.182394
0.20611 0.171749 0.16623
0.207863 0.171313 0.16648
0.210312 0.17015 0.167134
0.209266 0.170756 0.166824
0.211018 0.169372 0.167134
0.20611 -0.172118 0.183298
0.207863 -0.171683 0.183047
0.210312 -0.17052 0.182394
0.209266 -0.171125 0.182703
0.211018 -0.169742 0.182394
0.204147 -0.170812 0.164826
0.20611 -0.170752 0.165007
0.207863 -0.170472 0.165397
0.209266 -0.170087 0.165896
0.211018 -0.169742 0.167134
0.210312 -0.17052 0.167134
-0.232155 -0.162942 0.183351
-0.232155 0.170442 0.176311
-0.232155 0.162573 0.166176
0.204147 -0.172321 0.183351
-0.223652 -0.172321 0.166176
-0.223652 0.171951 0.183351
0.204147 0.171951 0.166176
-0.162322 0.122322 0.01
-0.166111 0.119213 0.01
-0.162322 0.157678 0.01
-0.18 0.115 0.17
-0.193889 0.119213 0.17
-0.189567 0.116903 0.17
-0.193889 0.160787 0.17
0.197678 0.122322 0.01
0.193889 0.119213 0.01
0.197678 0.157678 0.01
0.18 0.115 0.17
0.166111 0.119213 0.17
0.170433 0.116903 0.17
0.166111 0.160787 0.17
-0.162322 -0.157678 0.01
-0.166111 -0.160787 0.01
-0.162322 -0.122322 0.01
-0.18 -0.165 0.17
-0.193889 -0.160787 0.17
-0.189567 -0.163097 0.17
-0.193889 -0.119213 0.17
0.197678 -0.157678 0.01
0.193889 -0.160787 0.01
0.197678 -0.122322 0.01
0.18 -0.165 0.17
0.166111 -0.160787 0.17
0.170433 -0.163097 0.17
0.166111 -0.119213 0.17
-0.220079 0.155932 0.008363
-0.220996 0.132345 0.017699
-0.21763 0.155932 0.01118
-0.196243 0.159644 -0.061566
-0.220079 0.155932 -0.05223
-0.220996 0.164879 -0.027618
-0.21763 0.158632 -0.05223
-0.196243 -0.160014 0.017699
-0.21763 -0.156302 0.01118
-0.220996 -0.132715 -0.061566
-0.21763 -0.156302 -0.055048
0.176739 0.159644 0.017699
0.198126 0.155932 0.01118
0.176739 -0.160014 -0.061566
0.198126 -0.156302 -0.055048
-0.225743 0.132345 0.012236
-0.225743 0.159644 -0.027618
-0.225743 -0.132715 -0.056103
-0.196243 -0.165249 0.012236
0.176739 -0.165249 -0.056103
0.176739 0.164879 0.012236
-0.196243 0.164879 -0.056103
-0.230522 0.169372 0.182394
-0.229817 0.169372 0.183091
-0.230787 0.171951 0.173216
-0.229817 0.17015 0.167134
-0.229817 -0.169742 0.183091
-0.229817 -0.169742 0.166437
0.210312 0.169372 0.183091
0.210312 -0.169742 0.166437
-0.232155 0.162573 0.183351
-0.232155 0.170442 0.173216
-0.232155 -0.162942 0.166176
-0.223652 -0.172321 0.183351
0.204147 -0.172321 0.166176
0.204147 0.171951 0.183351
-0.223652 0.171951 0.166176
-0.170433 0.116903 0.01
-0.175123 0.11548 0.01
-0.175123 0.16452 0.01
-0.18 0.115 0.01
-0.18 0.165 0.01
-0.184877 0.11548 0.01
-0.184877 0.16452 0.01
-0.189567 0.116903 0.01
-0.189567 0.163097 0.01
-0.193889 0.119213 0.01
-0.197678 0.122322 0.01
-0.193889 0.160787 0.01
-0.200787 0.126111 0.01
-0.197678 0.157678 0.01
-0.203097 0.130433 0.01
-0.200787 0.153889 0.01
-0.20452 0.135123 0.01
-0.20452 0.144877 0.01
-0.205 0.14 0.01
-0.203097 0.149567 0.01
-0.170433 0.163097 0.01
-0.166111 0.160787 0.01
-0.159213 0.153889 0.01
-0.156903 0.149567 0.01
-0.159213 0.126111 0.01
-0.15548 0.144877 0.01
-0.156903 0.130433 0.01
-0.155 0.14 0.01
-0.15548 0.135123 0.01
-0.18 0.115 0.01
-0.184877 0.11548 0.17
-0.18 0.115 0.17
-0.18 0.165 0.17
-0.175123 0.11548 0.17
-0.175123 0.16452 0.17
-0.170433 0.116903 0.17
-0.166111 0.119213 0.17
-0.170433 0.163097 0.17
-0.162322 0.122322 0.17
-0.162322 0.157678 0.17
-0.159213 0.126111 0.17
-0.159213 0.153889 0.17
-0.156903 0.130433 0.17
-0.15548 0.135123 0.17
-0.156903 0.149567 0.17
-0.155 0.14 0.17
-0.15548 0.144877 0.17
-0.166111 0.160787 0.17
-0.184877 0.16452 0.17
-0.189567 0.163097 0.17
-0.197678 0.157678 0.17
-0.197678 0.122322 0.17
-0.200787 0.153889 0.17
-0.200787 0.126111 0.17
-0.203097 0.149567 0.17
-0.20452 0.144877 0.17
-0.203097 0.130433 0.17
-0.205 0.14 0.17
-0.20452 0.135123 0.17
0.189567 0.116903 0.01
0.184877 0.11548 0.01
0.184877 0.16452 0.01
0.18 0.115 0.01
0.18 0.165 0.01
0.175123 0.11548 0.01
0.175123 0.16452 0.01
0.170433 0.116903 0.01
0.170433 0.163097 0.01
0.166111 0.119213 0.01
0.162322 0.122322 0.01
0.166111 0.160787 0.01
0.159213 0.126111 0.01
0.162322 0.157678 0.01
0.156903 0.130433 0.01
0.159213 0.153889 0.01
0.15548 0.135123 0.01
0.15548 0.144877 0.01
0.155 0.14 0.01
0.156903 0.149567 0.01
0.189567 0.163097 0.01
0.193889 0.160787 0.01
0.200787 0.153889 0.01
0.203097 0.149567 0.01
0.200787 0.126111 0.01
0.20452 0.144877 0.01
0.203097 0.130433 0.01
0.205 0.14 0.01
0.20452 0.135123 0.01
0.18 0.115 0.01
0.175123 0.11548 0.17
0.18 0.115 0.17
0.18 0.165 0.17
0.184877 0.11548 0.17
0.184877 0.16452 0.17
0.189567 0.116903 0.17
0.193889 0.119213 0.17
0.189567 0.163097 0.17
0.197678 0.122322 0.17
0.197678 0.157678 0.17
0.200787 0.126111 0.17
0.200787 0.153889 0.17
0.203097 0.130433 0.17
0.20452 0.135123 0.17
0.203097 0.149567 0.17
0.205 0.14 0.17
0.20452 0.144877 0.17
0.193889 0.160787 0.17
0.175123 0.16452 0.17
0.170433 0.163097 0.17
0.162322 0.157678 0.17
0.162322 0.122322 0.17
0.159213 0.153889 0.17
0.159213 0.126111 0.17
0.156903 0.149567 0.17
0.15548 0.144877 0.17
0.156903 0.130433 0.17
0.155 0.14 0.17
0.15548 0.135123 0.17
-0.170433 -0.163097 0.01
-0.175123 -0.16452 0.01
-0.175123 -0.11548 0.01
-0.18 -0.165 0.01
-0.18 -0.115 0.01
-0.184877 -0.16452 0.01
-0.184877 -0.11548 0.01
-0.189567 -0.163097 0.01
-0.189567 -0.116903 0.01
-0.193889 -0.160787 0.01
-0.197678 -0.157678 0.01
-0.193889 -0.119213 0.01
-0.200787 -0.153889 0.01
-0.197678 -0.122322 0.01
-0.203097 -0.149567 0.01
-0.200787 -0.126111 0.01
-0.20452 -0.144877 0.01
-0.20452 -0.135123 0.01
-0.205 -0.14 0.01
-0.203097 -0.130433 0.01
-0.170433 -0.116903 0.01
-0.166111 -0.119213 0.01
-0.159213 -0.126111 0.01
-0.156903 -0.130433 0.01
-0.159213 -0.153889 0.01
-0.15548 -0.135123 0.01
-0.156903 -0.149567 0.01
-0.155 -0.14 0.01
-0.15548 -0.144877 0.01
-0.18 -0.165 0.01
-0.184877 -0.16452 0.17
-0.18 -0.165 0.17
-0.18 -0.115 0.17
-0.175123 -0.16452 0.17
-0.175123 -0.11548 0.17
-0.170433 -0.163097 0.17
-0.166111 -0.160787 0.17
-0.170433 -0.116903 0.17
-0.162322 -0.157678 0.17
-0.162322 -0.122322 0.17
-0.159213 -0.153889 0.17
-0.159213 -0.126111 0.17
-0.156903 -0.149567 0.17
-0.15548 -0.144877 0.17
-0.156903 -0.130433 0.17
-0.155 -0.14 0.17
-0.15548 -0.135123 0.17
-0.166111 -0.119213 0.17
-0.184877 -0.11548 0.17
-0.189567 -0.116903 0.17
-0.197678 -0.122322 0.17
-0.197678 -0.157678 0.17
-0.200787 -0.126111 0.17
-0.200787 -0.153889 0.17
-0.203097 -0.130433 0.17
-0.20452 -0.135123 0.17
-0.203097 -0.149567 0.17
-0.205 -0.14 0.17
-0.20452 -0.144877 0.17
0.189567 -0.163097 0.01
0.184877 -0.16452 0.01
0.184877 -0.11548 0.01
0.18 -0.165 0.01
0.18 -0.115 0.01
0.175123 -0.16452 0.01
0.175123 -0.11548 0.01
0.170433 -0.163097 0.01
0.170433 -0.116903 0.01
0.166111 -0.160787 0.01
0.162322 -0.157678 0.01
0.166111 -0.119213 0.01
0.159213 -0.153889 0.01
0.162322 -0.122322 0.01
0.156903 -0.149567 0.01
0.159213 -0.126111 0.01
0.15548 -0.144877 0.01
0.15548 -0.135123 0.01
0.155 -0.14 0.01
0.156903 -0.130433 0.01
0.189567 -0.116903 0.01
0.193889 -0.119213 0.01
0.200787 -0.126111 0.01
0.203097 -0.130433 0.01
0.200787 -0.153889 0.01
0.20452 -0.135123 0.01
0.203097 -0.149567 0.01
0.205 -0.14 0.01
0.20452 -0.144877 0.01
0.18 -0.165 0.01
0.175123 -0.16452 0.17
0.18 -0.165 0.17
0.18 -0.115 0.17
0.184877 -0.16452 0.17
0.184877 -0.11548 0.17
0.189567 -0.163097 0.17
0.193889 -0.160787 0.17
0.189567 -0.116903 0.17
0.197678 -0.157678 0.17
0.197678 -0.122322 0.17
0.200787 -0.153889 0.17
0.200787 -0.126111 0.17
0.203097 -0.149567 0.17
0.20452 -0.144877 0.17
0.203097 -0.130433 0.17
0.205 -0.14 0.17
0.20452 -0.135123 0.17
0.193889 -0.119213 0.17
0.175123 -0.11548 0.17
0.170433 -0.116903 0.17
0.162322 -0.122322 0.17
0.162322 -0.157678 0.17
0.159213 -0.126111 0.17
0.159213 -0.153889 0.17
0.156903 -0.130433 0.17
0.15548 -0.135123 0.17
0.156903 -0.149567 0.17
0.155 -0.14 0.17
0.15548 -0.144877 0.17
-0.009752 0.174815 -0.0219335
-0.009752 0.174815 -0.016249
0.176739 0.174815 -0.0219335
0.215248 -0.000184998 -0.0219335
0.215248 -0.000184998 -0.016249
0.215248 -0.132715 -0.0219335
-0.009752 -0.000184998 -0.071934
0.176739 -0.000184998 -0.071934
-0.009752 -0.132715 -0.071934
-0.234752 -0.000184998 -0.0219335
-0.234752 -0.000184998 -0.016249
-0.234752 0.132345 -0.0219335
-0.009752 -0.175185 -0.0219335
-0.009752 -0.175185 -0.016249
-0.196243 -0.175185 -0.0219335
-0.206172 -0.000184998 0.0263935
-0.206172 -0.132715 0.0263935
-0.202931 -0.000184998 0.027393
-0.212456 -0.000184998 0.023762
-0.212456 -0.132715 0.023762
-0.209414 -0.000184998 0.025394
-0.218247 -0.000184998 0.0199145
-0.218247 -0.132715 0.0199145
-0.215497 -0.000184998 0.02213
-0.22337 -0.000184998 0.0149675
-0.22337 -0.132715 0.0149675
-0.220996 -0.000184998 0.017699
-0.227668 -0.000184998 0.009072
-0.227668 -0.132715 0.009072
-0.225743 -0.000184998 0.012236
-0.231011 -0.000184998 0.002408
-0.231011 -0.132715 0.002408
-0.229593 -0.000184998 0.005908
-0.233298 -0.000184998 -0.0048225
-0.233298 -0.132715 -0.0048225
-0.23243 -0.000184998 -0.001092
-0.234459 -0.000184998 -0.012401
-0.234459 -0.132715 -0.012401
-0.234167 -0.000184998 -0.008553
-0.206172 -0.000184998 -0.0702605
-0.206172 0.132345 -0.0702605
-0.202931 -0.000184998 -0.07126
-0.212456 -0.000184998 -0.067629
-0.212456 0.132345 -0.067629
-0.209414 -0.000184998 -0.069261
-0.218247 -0.000184998 -0.0637815
-0.218247 0.132345 -0.0637815
-0.215497 -0.000184998 -0.065997
-0.22337 -0.000184998 -0.0588345
-0.22337 0.132345 -0.0588345
-0.220996 -0.000184998 -0.061566
-0.227668 -0.000184998 -0.0529395
-0.227668 0.132345 -0.0529395
-0.225743 -0.000184998 -0.056103
-0.231011 -0.000184998 -0.0462755
-0.231011 0.132345 -0.0462755
-0.229593 -0.000184998 -0.049776
-0.233298 -0.000184998 -0.0390445
-0.233298 0.132345 -0.0390445
-0.23243 -0.000184998 -0.042775
-0.234459 -0.000184998 -0.031466
-0.234752 -0.000184998 -0.027618
-0.234459 0.132345 -0.031466
-0.009752 -0.136403 0.0277295
0.176739 -0.136403 0.0277295
-0.009752 -0.132715 0.028066
-0.009752 -0.143665 0.0263935
0.176739 -0.143665 0.0263935
-0.009752 -0.14009 0.027393
-0.009752 -0.150595 0.023762
0.176739 -0.150595 0.023762
-0.009752 -0.147241 0.025394
-0.009752 -0.156981 0.0199145
0.176739 -0.156981 0.0199145
-0.009752 -0.153949 0.02213
-0.009752 -0.162632 0.0149675
0.176739 -0.162632 0.0149675
-0.009752 -0.160014 0.017699
-0.009752 -0.167372 0.009072
0.176739 -0.167372 0.009072
-0.009752 -0.165249 0.012236
-0.009752 -0.17106 0.002408
0.176739 -0.17106 0.002408
-0.009752 -0.169495 0.005908
-0.009752 -0.173582 -0.0048225
0.176739 -0.173582 -0.0048225
-0.009752 -0.172624 -0.001092
-0.009752 -0.174862 -0.012401
0.176739 -0.174862 -0.012401
-0.009752 -0.174539 -0.008553
-0.009752 -0.136403 -0.071597
-0.196243 -0.136403 -0.071597
-0.009752 -0.132715 -0.071934
-0.009752 -0.143665 -0.0702605
-0.196243 -0.143665 -0.0702605
-0.009752 -0.14009 -0.07126
-0.009752 -0.150595 -0.067629
-0.196243 -0.150595 -0.067629
-0.009752 -0.147241 -0.069261
-0.009752 -0.156981 -0.0637815
-0.196243 -0.156981 -0.0637815
-0.009752 -0.153949 -0.065997
-0.009752 -0.162632 -0.0588345
-0.196243 -0.162632 -0.0588345
-0.009752 -0.160014 -0.061566
-0.009752 -0.167372 -0.0529395
-0.196243 -0.167372 -0.0529395
-0.009752 -0.165249 -0.056103
-0.009752 -0.17106 -0.0462755
-0.196243 -0.17106 -0.0462755
-0.009752 -0.169495 -0.049776
-0.009752 -0.173582 -0.0390445
-0.196243 -0.173582 -0.0390445
-0.009752 -0.172624 -0.042775
-0.009752 -0.174862 -0.031466
-0.196243 -0.174862 -0.031466
-0.009752 -0.174539 -0.035314
0.186668 -0.000184998 0.0263935
0.186668 0.132345 0.0263935
0.183426 -0.000184998 0.027393
0.192952 -0.000184998 0.023762
0.192952 0.132345 0.023762
0.18991 -0.000184998 0.025394
0.198742 -0.000184998 0.0199145
0.198742 0.132345 0.0199145
0.195993 -0.000184998 0.02213
0.203865 -0.000184998 0.0149675
0.203865 0.132345 0.0149675
0.201491 -0.000184998 0.017699
0.208164 -0.000184998 0.009072
0.208164 0.132345 0.009072
0.206239 -0.000184998 0.012236
0.211507 -0.000184998 0.002408
0.211507 0.132345 0.002408
0.210089 -0.000184998 0.005908
0.213794 -0.000184998 -0.0048225
0.213794 0.132345 -0.0048225
0.212925 -0.000184998 -0.001092
0.214956 -0.000184998 -0.012401
0.215248 -0.000184998 -0.016249
0.214956 0.132345 -0.012401
0.186668 -0.000184998 -0.0702605
0.186668 -0.132715 -0.0702605
0.183426 -0.000184998 -0.07126
0.192952 -0.000184998 -0.067629
0.192952 -0.132715 -0.067629
0.18991 -0.000184998 -0.069261
0.198742 -0.000184998 -0.0637815
0.198742 -0.132715 -0.0637815
0.195993 -0.000184998 -0.065997
0.203865 -0.000184998 -0.0588345
0.203865 -0.132715 -0.0588345
0.201491 -0.000184998 -0.061566
0.208164 -0.000184998 -0.0529395
0.208164 -0.132715 -0.0529395
0.206239 -0.000184998 -0.056103
0.211507 -0.000184998 -0.0462755
0.211507 -0.132715 -0.0462755
0.210089 -0.000184998 -0.049776
0.213794 -0.000184998 -0.0390445
0.213794 -0.132715 -0.0390445
0.212925 -0.000184998 -0.042775
0.214956 -0.000184998 -0.031466
0.215248 -0.000184998 -0.027618
0.214956 -0.132715 -0.031466
-0.009752 0.136033 0.0277295
-0.196243 0.136033 0.0277295
-0.009752 0.132345 0.028066
-0.009752 0.143296 0.0263935
-0.196243 0.143296 0.0263935
-0.009752 0.139721 0.027393
-0.009752 0.150225 0.023762
-0.196243 0.150225 0.023762
-0.009752 0.146871 0.025394
-0.009752 0.156612 0.0199145
-0.196243 0.156612 0.0199145
-0.009752 0.15358 0.02213
-0.009752 0.162261 0.0149675
-0.196243 0.162261 0.0149675
-0.009752 0.159644 0.017699
-0.009752 0.167002 0.009072
-0.196243 0.167002 0.009072
-0.009752 0.164879 0.012236
-0.009752 0.17069 0.002408
-0.196243 0.170689 0.002408
-0.009752 0.169125 0.005908
-0.009752 0.173212 -0.0048225
-0.196243 0.173212 -0.0048225
-0.009752 0.172254 -0.001092
-0.009752 0.174493 -0.012401
-0.196243 0.174493 -0.012401
-0.009752 0.17417 -0.008553
-0.009752 0.136033 -0.071597
0.176739 0.136033 -0.071597
-0.009752 0.132345 -0.071934
-0.009752 0.143296 -0.0702605
0.176739 0.143296 -0.0702605
-0.009752 0.139721 -0.07126
-0.009752 0.150225 -0.067629
0.176739 0.150225 -0.067629
-0.009752 0.146871 -0.069261
-0.009752 0.156612 -0.0637815
0.176739 0.156612 -0.0637815
-0.009752 0.15358 -0.065997
-0.009752 0.162261 -0.0588345
0.176739 0.162261 -0.0588345
-0.009752 0.159644 -0.061566
-0.009752 0.167002 -0.0529395
0.176739 0.167002 -0.0529395
-0.009752 0.164879 -0.056103
-0.009752 0.17069 -0.0462755
0.176739 0.170689 -0.0462755
-0.009752 0.169125 -0.049776
-0.009752 0.173212 -0.0390445
0.176739 0.173212 -0.0390445
-0.009752 0.172254 -0.042775
-0.009752 0.174493 -0.031466
0.176739 0.174493 -0.031466
-0.009752 0.17417 -0.035314
-0.009752 -0.000184998 0.028066
-0.196243 -0.000184998 0.028066
-0.009752 -0.132715 0.028066
-0.0097525 -0.000184506 0.162264
0.204147 -0.000184506 0.162264
-0.0097525 -0.162942 0.162264
-0.0097525 -0.000184506 0.187264
-0.223652 -0.000184506 0.187264
-0.0097525 -0.162942 0.187264
-0.009752 0.174815 -0.027618
-0.196243 0.174815 -0.0219335
-0.009752 0.174815 -0.0219335
0.215248 -0.000184998 -0.027618
0.215248 0.132345 -0.0219335
0.215248 -0.000184998 -0.0219335
-0.196243 -0.000184998 -0.071934
-0.009752 0.132345 -0.071934
-0.009752 -0.000184998 -0.071934
-0.234752 -0.000184998 -0.027618
-0.234752 -0.132715 -0.0219335
-0.234752 -0.000184998 -0.0219335
-0.009752 -0.175185 -0.027618
0.176739 -0.175185 -0.0219335
-0.009752 -0.175185 -0.0219335
-0.206172 0.132345 0.0263935
-0.209414 -0.000184998 0.025394
-0.206172 -0.000184998 0.0263935
-0.212456 0.132345 0.023762
-0.215497 -0.000184998 0.02213
-0.212456 -0.000184998 0.023762
-0.218247 0.132345 0.0199145
-0.220996 -0.000184998 0.017699
-0.218247 -0.000184998 0.0199145
-0.22337 0.132345 0.0149675
-0.225743 -0.000184998 0.012236
-0.22337 -0.000184998 0.0149675
-0.227668 0.132345 0.009072
-0.229593 -0.000184998 0.005908
-0.227668 -0.000184998 0.009072
-0.231011 0.132345 0.002408
-0.23243 -0.000184998 -0.001092
-0.231011 -0.000184998 0.002408
-0.233298 0.132345 -0.0048225
-0.234167 -0.000184998 -0.008553
-0.233298 -0.000184998 -0.0048225
-0.234459 0.132345 -0.012401
-0.234752 -0.000184998 -0.016249
-0.234459 -0.000184998 -0.012401
-0.206172 -0.132715 -0.0702605
-0.209414 -0.000184998 -0.069261
-0.206172 -0.000184998 -0.0702605
-0.212456 -0.132715 -0.067629
-0.215497 -0.000184998 -0.065997
-0.212456 -0.000184998 -0.067629
-0.218247 -0.132715 -0.0637815
-0.220996 -0.000184998 -0.061566
-0.218247 -0.000184998 -0.0637815
-0.22337 -0.132715 -0.0588345
-0.225743 -0.000184998 -0.056103
-0.22337 -0.000184998 -0.0588345
-0.227668 -0.132715 -0.0529395
-0.229593 -0.000184998 -0.049776
-0.227668 -0.000184998 -0.0529395
-0.231011 -0.132715 -0.0462755
-0.23243 -0.000184998 -0.042775
-0.231011 -0.000184998 -0.0462755
-0.233298 -0.132715 -0.0390445
-0.234167 -0.000184998 -0.035314
-0.233298 -0.000184998 -0.0390445
-0.234167 -0.000184998 -0.035314
-0.234459 -0.132715 -0.031466
-0.234459 -0.000184998 -0.031466
-0.196243 -0.136403 0.0277295
-0.009752 -0.14009 0.027393
-0.009752 -0.136403 0.0277295
-0.196243 -0.143665 0.0263935
-0.009752 -0.147241 0.025394
-0.009752 -0.143665 0.0263935
-0.196243 -0.150595 0.023762
-0.009752 -0.153949 0.02213
-0.009752 -0.150595 0.023762
-0.196243 -0.156981 0.0199145
-0.009752 -0.160014 0.017699
-0.009752 -0.156981 0.0199145
-0.196243 -0.162632 0.0149675
-0.009752 -0.165249 0.012236
-0.009752 -0.162632 0.0149675
-0.196243 -0.167372 0.009072
-0.009752 -0.169495 0.005908
-0.009752 -0.167372 0.009072
-0.196243 -0.17106 0.002408
-0.009752 -0.172624 -0.001092
-0.009752 -0.17106 0.002408
-0.196243 -0.173582 -0.0048225
-0.009752 -0.174539 -0.008553
-0.009752 -0.173582 -0.0048225
-0.196243 -0.174862 -0.012401
-0.009752 -0.175185 -0.016249
-0.009752 -0.174862 -0.012401
0.176739 -0.136403 -0.071597
-0.009752 -0.14009 -0.07126
-0.009752 -0.136403 -0.071597
0.176739 -0.143665 -0.0702605
-0.009752 -0.147241 -0.069261
-0.009752 -0.143665 -0.0702605
0.176739 -0.150595 -0.067629
-0.009752 -0.153949 -0.065997
-0.009752 -0.150595 -0.067629
0.176739 -0.156981 -0.0637815
-0.009752 -0.160014 -0.061566
-0.009752 -0.156981 -0.0637815
0.176739 -0.162632 -0.0588345
-0.009752 -0.165249 -0.056103
-0.009752 -0.162632 -0.0588345
0.176739 -0.167372 -0.0529395
-0.009752 -0.169495 -0.049776
-0.009752 -0.167372 -0.0529395
0.176739 -0.17106 -0.0462755
-0.009752 -0.172624 -0.042775
-0.009752 -0.17106 -0.0462755
0.176739 -0.173582 -0.0390445
-0.009752 -0.174539 -0.035314
-0.009752 -0.173582 -0.0390445
0.176739 -0.174862 -0.031466
-0.009752 -0.175185 -0.027618
-0.009752 -0.174862 -0.031466
0.186668 -0.132715 0.0263935
0.18991 -0.000184998 0.025394
0.186668 -0.000184998 0.0263935
0.192952 -0.132715 0.023762
0.195993 -0.000184998 0.02213
0.192952 -0.000184998 0.023762
0.198742 -0.132715 0.0199145
0.201491 -0.000184998 0.017699
0.198742 -0.000184998 0.0199145
0.203865 -0.132715 0.0149675
0.206239 -0.000184998 0.012236
0.203865 -0.000184998 0.0149675
0.208164 -0.132715 0.009072
0.210089 -0.000184998 0.005908
0.208164 -0.000184998 0.009072
0.211507 -0.132715 0.002408
0.212925 -0.000184998 -0.001092
0.211507 -0.000184998 0.002408
0.213794 -0.132715 -0.0048225
0.214663 -0.000184998 -0.008553
0.213794 -0.000184998 -0.0048225
0.214663 -0.000184998 -0.008553
0.214956 -0.132715 -0.012401
0.214956 -0.000184998 -0.012401
0.186668 0.132345 -0.0702605
0.18991 -0.000184998 -0.069261
0.186668 -0.000184998 -0.0702605
0.192952 0.132345 -0.067629
0.195993 -0.000184998 -0.065997
0.192952 -0.000184998 -0.067629
0.198742 0.132345 -0.0637815
0.201491 -0.000184998 -0.061566
0.198742 -0.000184998 -0.0637815
0.203865 0.132345 -0.0588345
0.206239 -0.000184998 -0.056103
0.203865 -0.000184998 -0.0588345
